# .PCD v0.7 - Point Cloud Data file format
VERSION 0.7
FIELDS x y z
SIZE 4 4 4
TYPE F F F
COUNT 1 1 1
WIDTH 1559
HEIGHT 1
VIEWPOINT 0 0 0 1 0 0 0
POINTS 1559
DATA ascii
-112.49288 79.66716 1082.2491
-109.27668 78.777748 1082.3411
-106.60394 79.505318 1081.6029
-103.7613 79.415344 1081.938
-100.4833 79.30439 1081.9125
-97.200356 79.496918 1081.8358
-94.252556 79.367096 1081.2786
-91.762665 79.630943 1081.2438
-192.79811 82.653931 1082.4053
-190.95676 82.509567 1081.8259
-187.25328 82.466423 1081.9158
-185.61336 81.983711 1082.374
-181.64536 82.355507 1082.2455
-177.85788 82.3675 1082.4058
-174.7959 82.568871 1082.1654
-172.70154 82.481979 1082.3407
-169.95595 82.657219 1082.4479
-166.80542 82.721298 1082.4159
-163.15558 82.552681 1082.832
-160.30693 82.629395 1082.0839
-157.24812 82.339912 1082.667
-153.03258 81.873657 1082.681
-151.04823 82.64006 1082.009
-148.50745 82.336388 1082.6193
-145.22348 82.233025 1082.1379
-142.27679 82.388306 1082.4263
-139.17795 82.334236 1082.2987
-136.36258 82.458984 1082.1875
-133.84706 82.541885 1082.1031
-130.64169 82.286469 1082.1382
-127.85843 82.522636 1082.438
-125.14626 82.275314 1082.2573
-121.76343 82.461945 1082.0768
-117.72832 82.151291 1082.3822
-115.85115 82.760178 1082.3
-112.40034 82.20108 1082.3771
-109.02444 82.650406 1082.3635
-106.17242 82.407433 1082.0944
-103.49058 82.461082 1082.1292
-100.49217 82.639168 1081.8127
-97.209602 82.614716 1081.4175
-94.560532 82.521782 1081.7208
-91.658051 82.462456 1081.6449
-89.469742 83.02874 1082.076
-195.31097 86.96698 1081.2598
-193.39592 85.367882 1082.5421
-191.24493 85.916008 1082.1318
-187.22977 85.441414 1082.2063
-184.97096 85.467125 1082.5316
-181.45529 85.277962 1082.1649
-178.05342 85.213768 1082.7047
-175.11838 85.874252 1082.6138
-172.77238 85.314636 1082.2906
-170.26707 86.262108 1082.4551
-166.65002 85.462837 1082.4772
-163.07516 85.486198 1082.7729
-160.13327 85.446434 1082.2689
-157.69254 85.792542 1082.5925
-153.07739 85.495438 1082.8894
-151.25348 85.333015 1082.1006
-149.52791 85.461143 1082.4541
-145.37123 85.444321 1082.2452
-142.63268 86.012062 1082.1908
-139.0452 85.453629 1082.3596
-136.35712 85.487076 1082.2203
-133.93622 85.293968 1082.3668
-130.67027 85.374695 1082.207
-127.76898 85.648933 1082.3008
-125.09996 85.641464 1082.2021
-121.79557 85.413177 1081.8481
-117.76278 85.46463 1082.4995
-115.72614 85.330574 1082.2511
-112.25032 85.47715 1082.6589
-109.18855 85.361763 1082.4647
-106.02258 85.342461 1081.969
-103.41017 85.736473 1081.8895
-100.54349 85.520187 1081.6433
-97.314507 85.66584 1081.6711
-94.132034 85.592812 1081.5917
-91.540733 85.446388 1081.4252
-89.202255 85.665092 1081.6604
-195.62593 88.668701 1082.4956
-193.26268 88.345398 1082.6273
-191.53288 88.795425 1082.8223
-187.82513 88.520737 1082.5027
-184.91463 88.256454 1082.3575
-181.15237 88.409164 1082.123
-178.19122 88.602592 1082.5062
-174.56503 88.269608 1082.1876
-171.58215 89.483032 1082.6593
-170.31493 88.088982 1082.7573
-166.75807 88.498672 1082.3788
-160.16692 88.516457 1082.2699
-157.1526 88.382408 1082.4957
-153.10271 87.90741 1082.9883
-151.16339 88.230888 1082.0421
-148.57545 87.891663 1082.7943
-145.42889 88.297569 1081.9674
-142.61491 88.230293 1082.0378
-139.23595 88.395287 1082.4183
-136.33405 88.545471 1082.0825
-133.90805 88.498413 1082.2515
-130.55165 88.356094 1082.1765
-127.82244 88.086769 1082.3788
-124.86532 88.322723 1082.0741
-121.99855 88.58313 1082.1525
-117.92483 88.342834 1082.5967
-115.95837 88.187744 1082.3324
-112.35211 88.075104 1082.5879
-108.88134 88.638268 1082.1285
-106.19662 88.486748 1081.9076
-103.76273 88.714188 1081.8324
-100.50992 88.257843 1081.8285
-97.32196 88.475594 1081.6078
-94.329231 88.443855 1081.5851
-91.516747 88.561913 1082.0104
-88.645561 88.36097 1082.2333
-86.065933 89.453316 1082.2998
-196.01456 91.241104 1082.1281
-193.39195 91.42363 1082.3954
-191.34792 91.081184 1082.6101
-187.69246 91.385208 1082.4551
-185.13058 91.372032 1082.2582
-181.66452 91.451118 1082.2462
-178.11586 90.687721 1082.6938
-174.82664 90.956863 1082.7213
-171.88632 91.082222 1082.6208
-169.79115 91.282898 1082.6273
-166.43791 91.40229 1082.2607
-162.91078 92.648361 1082.2001
-160.05522 91.214844 1081.8198
-157.59319 91.817703 1082.7925
-154.6955 91.470818 1082.4824
-151.28035 91.902733 1082.1753
-148.60634 92.301682 1082.8301
-145.54843 91.302338 1081.9084
-142.6882 91.336624 1082.0786
-139.09009 91.619431 1082.4606
-136.33975 91.439468 1082.1101
-133.84787 91.854179 1082.2787
-130.55756 91.385254 1082.2574
-127.8535 91.181992 1082.6191
-125.00922 91.213516 1082.141
-121.76013 91.409706 1082.2322
-117.3912 90.280548 1082.6156
-115.64515 91.605034 1082.0408
-112.07902 91.471451 1081.9587
-109.29016 91.159599 1082.3502
-105.97945 91.279106 1082.1074
-103.70071 91.190468 1082.0074
-100.49743 91.46701 1081.7061
-97.293488 91.504372 1082.0156
-94.168808 91.469894 1081.9978
-91.464264 91.389603 1082.0441
-88.642296 91.608238 1082.2117
-86.120003 91.276878 1082.0808
-198.87703 95.913414 1082.8975
-196.48251 94.506248 1082.5134
-193.43814 94.281898 1082.5662
-191.1768 93.702209 1082.0389
-187.13353 94.577477 1082.2816
-184.37686 95.087387 1082.6166
-181.18675 94.717308 1082.3102
-178.65575 94.787079 1082.6191
-174.48494 95.096031 1082.715
-172.99512 94.252769 1082.2329
-170.20909 94.674606 1082.4786
-166.61649 94.551407 1082.377
-163.29224 95.914444 1082.9091
-160.16469 94.386375 1082.2317
-157.77316 94.400574 1082.7789
-153.93895 94.558479 1082.6759
-151.14731 94.767456 1082.0104
-149.45486 93.844009 1082.1365
-145.43736 94.6661 1081.7257
-142.40189 94.450577 1082.2048
-139.26573 94.337692 1082.0566
-136.3781 94.386391 1082.2321
-133.62546 94.673645 1082.1611
-130.39023 94.352341 1082.3535
-127.20544 94.577179 1082.3816
-125.16504 94.849411 1081.7295
-122.21935 94.724419 1081.9023
-118.04446 94.966042 1081.9971
-115.53502 94.019127 1082.1748
-109.07467 94.312706 1082.1533
-105.82972 94.387886 1082.4689
-103.59352 95.279129 1082.0646
-100.38928 94.541206 1081.869
-97.268707 94.545013 1081.8258
-94.307968 94.447388 1081.9144
-91.505173 94.591835 1081.531
-88.647903 94.675598 1082.0295
-85.611992 94.540993 1082.037
-198.84128 97.07843 1082.4856
-196.30676 97.480103 1082.4988
-193.50327 97.687805 1082.2668
-191.40233 97.460655 1082.2809
-187.51068 97.371872 1082.2843
-184.60188 97.480431 1082.5028
-181.53365 97.609291 1082.45
-178.09996 96.971283 1082.7794
-174.3709 97.279175 1082.4919
-166.43504 97.260193 1082.2798
-163.24261 98.323326 1082.9624
-160.14281 97.443359 1082.0883
-157.56421 97.702515 1082.7437
-151.29576 97.443489 1082.0903
-148.89673 98.031166 1082.6862
-145.73116 97.329979 1082.1012
-142.29468 97.476646 1082.4591
-139.04727 97.395645 1082.1185
-136.40456 97.459373 1082.2673
-133.99812 97.482483 1082.5248
-130.41164 97.360123 1082.2786
-128.07758 96.636917 1082.026
-125.34973 97.789589 1081.4918
-121.63461 97.360886 1082.0623
-118.21454 96.966713 1082.7286
-115.536 97.506081 1082.7858
-113.32189 96.618744 1081.8225
-109.31825 97.052597 1082.1965
-106.1908 98.032318 1082.6989
-103.8718 97.451454 1082.1787
-100.61776 97.576157 1081.7885
-97.309677 97.561821 1081.9242
-94.294518 97.310501 1081.3551
-91.553001 97.427368 1081.1742
-88.775703 97.093544 1082.0164
-85.385338 97.817047 1081.7963
-199.00366 100.05221 1082.1594
-195.94221 100.38296 1082.4895
-193.31523 100.6423 1082.7635
-191.65579 100.48045 1082.4573
-187.3401 100.54233 1082.4065
-184.8459 99.639587 1082.7516
-181.56343 100.39282 1082.2338
-177.38062 100.49672 1082.6351
-174.54961 100.56829 1082.3274
-172.98 100.72147 1082.8978
-170.33215 101.53069 1082.9819
-166.55167 100.57809 1082.2184
-162.97267 101.07387 1082.3815
-160.08113 100.64673 1082.0935
-157.29137 99.998901 1082.666
-154.44882 99.11058 1082.8081
-151.13982 100.4166 1082.2024
-148.65466 100.60651 1082.738
-145.12259 100.50012 1082.132
-142.68924 100.35678 1082.5656
-139.20367 100.55732 1082.0905
-136.26414 100.31523 1082.0515
-133.67848 100.43581 1082.4099
-130.2597 100.49702 1082.0994
-127.99406 100.64914 1082.121
-125.12015 100.27731 1081.8875
-121.55943 99.518921 1082.8917
-119.8021 100.67849 1082.4355
-115.08601 100.83038 1082.348
-113.70344 99.917168 1082.8657
-109.16984 100.61909 1082.5155
-106.19695 100.12533 1082.5186
-102.96725 100.62341 1081.8427
-100.75407 100.3017 1081.7335
-97.625999 100.45046 1081.5496
-94.335815 100.41375 1081.74
-91.612801 100.51438 1081.3877
-88.549606 100.28821 1082.0068
-85.196968 100.5965 1081.5547
-83.257401 99.797127 1081.5647
-199.27017 103.25523 1082.5778
-196.12437 103.26959 1082.3085
-193.35497 103.33808 1082.7258
-191.73108 102.30205 1082.6639
-187.17676 103.67739 1082.3862
-185.05862 102.68517 1082.4806
-181.83253 103.4458 1082.0575
-178.44739 103.12082 1082.8489
-174.4436 103.21509 1082.4376
-166.36461 103.54272 1082.3727
-160.16414 103.45406 1082.1455
-157.78612 103.27563 1082.7913
-154.75053 103.36108 1082.5651
-151.36931 103.55178 1082.1189
-148.88509 103.50861 1082.7147
-145.60805 103.43112 1081.9037
-142.29604 103.42195 1082.4086
-139.24474 103.42151 1082.2231
-136.34715 103.51461 1082.3573
-133.81494 103.43688 1081.9663
-130.6368 102.64272 1081.749
-128.01797 103.45875 1082.1892
-124.77639 103.26508 1082.6799
-121.41106 103.87824 1082.3912
-117.88102 103.26251 1082.6562
-115.77277 103.30601 1082.3904
-112.35443 104.31573 1082.7758
-108.96111 103.32352 1081.8285
-106.71051 103.47707 1082.3868
-103.10571 103.0603 1082.2139
-100.76046 103.54939 1081.7458
-97.705116 103.42568 1081.498
-94.272461 103.51614 1081.3993
-91.453728 103.58231 1081.3947
-88.404404 103.65923 1081.778
-85.401825 103.32374 1081.7106
-83.488525 103.52006 1081.1604
-199.22966 106.62785 1082.5243
-196.20844 106.36662 1082.5831
-193.39583 106.7625 1082.5345
-190.62259 107.22147 1082.1823
-187.46675 106.50759 1082.3669
-185.33194 106.76359 1082.2064
-181.73647 106.4551 1082.4139
-177.53757 107.1394 1082.9709
-174.85689 106.69131 1082.4916
-169.858 107.92442 1082.8068
-166.74306 106.43069 1082.5554
-162.08789 105.53044 1082.9076
-160.28792 106.56404 1082.3591
-157.314 106.51781 1082.7609
-155.34628 107.72485 1082.814
-151.60175 106.45506 1082.1243
-148.64177 107.33539 1082.927
-145.18736 106.69239 1081.8201
-142.23517 106.38485 1082.0883
-139.17912 106.4468 1082.0404
-136.54337 106.39386 1082.1794
-134.13477 106.53477 1082.5271
-130.18314 106.69134 1082.3223
-126.81229 107.11434 1082.717
-125.08435 107.085 1082.4244
-121.98225 106.27879 1082.3671
-117.27114 106.39896 1082.2325
-115.69521 106.39737 1082.2166
-111.64857 106.44366 1082.6874
-109.05815 106.39983 1081.9685
-106.61636 106.45162 1082.7677
-103.02258 106.35838 1081.8225
-100.85757 106.45518 1081.855
-97.659798 106.53428 1081.6349
-94.345024 106.5052 1081.6172
-91.202019 106.51286 1081.4945
-88.637161 106.6148 1081.7142
-85.541039 106.44901 1081.8373
-83.294991 106.50173 1081.0203
-199.63141 109.2548 1082.7568
-195.96532 109.71207 1082.6573
-193.4483 109.39397 1082.4802
-191.62308 110.25687 1082.1062
-187.24983 109.59574 1082.4972
-182.17535 109.27632 1082.3069
-177.42821 110.33907 1082.9131
-174.13005 109.49183 1082.4584
-169.84232 109.52154 1082.7532
-166.31125 109.51581 1082.6962
-163.24341 109.92439 1082.7754
-160.39929 109.71783 1082.0546
-157.55316 109.32404 1082.7811
-153.08722 110.34152 1082.9371
-151.23656 109.43856 1081.9338
-148.71422 109.49453 1082.4858
-145.64061 109.47141 1082.2588
-142.3465 109.5993 1082.531
-139.29845 109.55402 1082.0845
-136.46243 109.48755 1082.4169
-134.34476 109.4834 1082.3774
-130.46069 109.55462 1082.2007
-127.2152 109.45269 1082.0708
-124.90751 109.30788 1082.6207
-122.03591 109.62286 1082.4351
-117.33425 110.28502 1082.3826
-115.84885 109.60384 1082.2482
-111.9369 109.28818 1082.4266
-109.34399 109.44553 1082.0038
-106.68588 109.46899 1082.2335
-102.01958 110.29675 1082.4977
-100.69583 109.61227 1081.6736
-97.627808 109.42671 1081.4202
-94.290436 109.47579 1081.4232
-91.214378 109.55253 1081.4786
-88.466454 109.56334 1082.035
-85.403069 109.62859 1081.655
-83.315788 109.74715 1081.0293
-199.30124 112.30137 1082.5188
-195.52756 112.23473 1081.8781
-192.63374 113.50488 1082.5355
-191.00813 112.69659 1082.4634
-187.65295 112.40797 1082.4193
-185.1489 113.54439 1082.9124
-181.81303 112.5734 1082.5665
-177.35524 111.49956 1082.5089
-174.44617 112.62147 1082.7062
-169.36925 112.58305 1082.6581
-166.13051 112.51351 1082.6323
-163.27493 112.33981 1082.8876
-160.02148 112.51488 1082.0042
-157.57532 112.32231 1082.7179
-153.81958 112.70093 1082.5065
-151.40204 112.05283 1082.1222
-148.42741 112.35992 1082.3099
-145.55978 112.35796 1082.2048
-142.74788 112.47576 1082.5432
-139.23782 112.54329 1082.4376
-136.436 112.44521 1082.3591
-134.13005 112.39941 1082.6887
-130.29637 112.17021 1082.3561
-127.45753 112.3521 1081.903
-124.26656 112.39571 1082.6543
-121.98043 112.22678 1082.4408
-117.27009 112.53263 1082.1735
-115.7523 112.51464 1082.1594
-111.71819 112.57846 1082.6141
-109.31356 112.49487 1081.8136
-106.65488 112.53314 1082.4363
-102.58565 112.19064 1082.4154
-100.4305 112.45569 1081.6902
-97.343864 112.43099 1081.8381
-94.332001 112.55882 1081.6223
-91.356453 112.42944 1081.8234
-88.661049 112.48706 1081.9916
-85.502464 112.58282 1081.7585
-83.461723 112.5527 1081.0825
-199.35876 115.35823 1082.6394
-196.18758 115.66097 1082.3652
-193.36914 115.42737 1082.7227
-190.73982 115.63219 1082.4532
-187.66022 115.49032 1082.6246
-185.23909 115.59368 1082.4052
-181.74202 115.69136 1082.3801
-174.4339 115.31575 1082.6128
-169.73911 115.49739 1082.4417
-166.24918 114.87607 1082.2468
-163.22476 116.7591 1082.9988
-160.18506 115.09975 1082.4661
-157.70503 114.34 1082.858
-154.62914 116.15557 1082.561
-151.40779 115.75697 1082.3699
-148.80838 115.67342 1082.5901
-145.71173 115.79161 1082.2805
-143.02646 116.11954 1082.0161
-138.98134 115.18832 1082.3585
-136.28806 115.57618 1082.6415
-133.78111 115.1546 1082.1456
-130.43895 115.48798 1082.2383
-126.60561 115.79488 1082.4128
-124.86516 115.60085 1082.4702
-122.15971 115.18025 1082.4703
-117.30334 115.48014 1082.2797
-115.95014 115.46983 1082.1819
-112.01202 115.49667 1082.4319
-109.20127 115.25076 1082.3816
-106.04132 115.52645 1082.7117
-102.99818 115.40289 1081.5575
-100.82236 115.54707 1081.6564
-97.668976 115.51246 1081.6456
-94.234215 115.41511 1081.6697
-91.23056 115.44499 1081.6089
-88.472816 115.24302 1081.8442
-85.567123 115.31154 1081.8221
-83.525917 115.36204 1081.1766
-199.32294 118.326 1082.6702
-195.91348 118.59978 1082.4274
-193.26614 118.48418 1082.6525
-191.02184 118.47105 1082.4276
-187.26611 118.43388 1082.4342
-185.13904 118.60654 1082.7936
-181.92627 118.46334 1082.554
-177.44498 119.93793 1082.7567
-175.20074 118.72606 1082.6665
-172.43848 118.83968 1082.7886
-168.80206 118.32812 1082.6887
-165.27055 117.54906 1082.8933
-160.56381 118.83262 1082.1764
-157.2737 118.70941 1082.514
-154.56258 118.50156 1082.2404
-151.4292 118.3013 1082.4447
-148.44273 118.7352 1082.7495
-145.67924 118.46291 1082.3561
-142.54625 118.8413 1082.4974
-139.26141 118.52422 1082.2842
-136.31119 118.77892 1082.4176
-133.85747 118.31459 1082.0421
-130.496 118.37041 1082.3431
-127.14587 118.36127 1082.3817
-124.55261 118.3756 1082.5133
-122.08305 118.71885 1082.6
-117.32278 118.81986 1082.3052
-116.11279 118.56875 1082.2743
-111.72583 118.309 1082.5137
-109.31664 118.19386 1082.1943
-106.67461 118.62234 1082.4498
-102.90945 118.57111 1081.2555
-100.6565 118.63107 1081.8002
-97.629753 118.46423 1081.4945
-94.425034 118.39543 1081.4739
-91.225616 118.44604 1081.3271
-88.520142 118.58243 1081.8104
-85.733215 118.59912 1081.7513
-83.546822 118.21112 1081.6143
-198.89365 121.52786 1082.6445
-196.0175 121.33794 1082.3806
-193.56479 121.51123 1082.4976
-190.62859 121.50853 1082.4718
-187.36815 121.48896 1082.298
-184.92711 121.44942 1081.9469
-181.9926 121.77792 1082.495
-175.20688 120.73611 1082.7292
-173.20213 120.73399 1082.7103
-168.6974 122.07595 1082.7686
-166.32004 121.26786 1082.7067
-163.73546 121.68224 1082.594
-160.58266 121.17415 1082.3469
-157.55685 121.52503 1082.6199
-155.81517 121.55047 1082.8464
-151.40115 121.49901 1082.3884
-147.6942 121.54911 1082.8351
-145.36031 121.5683 1081.9851
-142.75734 121.65582 1082.3564
-139.26537 121.75533 1082.295
-136.38138 121.39198 1082.4535
-134.11775 121.65196 1082.3228
-130.43079 121.72695 1082.3807
-126.01018 121.47286 1082.155
-124.29556 121.50517 1082.4435
-121.93237 121.7739 1082.4608
-117.41019 121.52008 1082.5747
-115.86682 121.48695 1082.2809
-111.72009 121.89305 1082.3311
-109.39679 121.47342 1082.1593
-106.75564 121.49606 1082.3624
-102.98985 121.47731 1081.6863
-100.32076 121.58986 1081.7717
-97.517204 121.54462 1081.7258
-94.189133 121.53448 1081.2798
-91.247444 121.38682 1081.3892
-88.333412 121.47737 1082.1958
-84.995186 121.52348 1081.7139
-198.86618 123.52806 1082.6206
-195.9007 124.60729 1082.4272
-193.39536 124.14478 1082.761
-190.41644 124.25218 1082.3381
-187.57341 124.12171 1082.3099
-185.06004 124.1699 1082.3966
-182.11874 124.27448 1082.1439
-179.50464 124.57169 1082.4076
-175.1142 123.90231 1082.3939
-173.15385 123.10712 1082.4424
-169.58365 124.89275 1082.6459
-166.14275 124.50953 1082.4479
-160.12807 124.28942 1082.2745
-157.375 124.73935 1082.7046
-154.05078 123.16449 1082.9468
-151.48978 124.40047 1082.4664
-147.94574 124.55705 1082.8618
-145.83601 124.35683 1082.3645
-142.56711 124.25613 1082.5663
-139.23915 124.61528 1082.6205
-136.30812 124.27206 1082.7059
-134.15222 124.63545 1082.4988
-130.33324 124.41907 1082.2419
-127.36871 124.8586 1082.35
-124.48885 124.47716 1082.5153
-121.86324 124.84892 1082.2653
-117.606 124.41907 1082.532
-116.0832 124.57383 1082.4272
-112.16075 123.51786 1082.5327
-109.35895 124.52921 1082.0389
-106.50161 124.66632 1082.6498
-102.76054 124.32039 1081.6742
-100.44567 124.61526 1081.6284
-97.404999 124.43795 1081.8265
-94.335693 124.5637 1081.6764
-91.278488 124.40223 1081.5173
-88.738678 124.53379 1082.0789
-85.319466 124.21531 1082.0177
-195.56091 127.49216 1082.2704
-193.62552 128.13148 1082.5963
-190.0876 127.47933 1082.1608
-187.65663 127.82992 1082.5848
-185.03757 126.30797 1082.4154
-181.79968 127.65334 1082.5045
-178.03841 128.35503 1082.7915
-174.14995 127.93282 1082.6091
-171.66014 127.34509 1082.7206
-169.95825 126.63494 1081.788
-165.99625 126.982 1082.4701
-163.35161 128.11111 1082.4216
-160.58472 127.4034 1082.4882
-158.12515 127.36639 1082.9012
-155.2028 126.59801 1082.6123
-151.51711 127.64331 1082.4194
-148.27094 127.39024 1082.7646
-145.74449 127.47537 1082.1249
-143.25381 127.51823 1082.4924
-139.4509 127.3665 1082.4766
-136.30092 127.69701 1082.5505
-133.70477 127.75739 1082.63
-130.29726 127.52505 1082.5468
-126.60856 127.60323 1082.3608
-124.30129 127.17947 1082.3357
-121.73618 127.53049 1082.4062
-117.32357 127.48993 1082.2477
-115.87627 127.68592 1082.4556
-111.98996 127.82841 1082.5726
-109.31961 127.43997 1081.8246
-105.96588 127.57452 1082.483
-102.92438 126.98875 1081.3954
-100.36359 127.67332 1081.6437
-97.405128 127.65041 1081.9138
-94.187675 127.41593 1081.2441
-91.528778 127.39113 1081.4106
-88.517479 127.52956 1082.1007
-86.032143 127.60606 1082.1027
-195.61887 130.71924 1082.4639
-194.27902 130.33353 1082.5867
-190.35835 130.67804 1082.1237
-187.04988 130.77664 1082.3885
-184.87582 131.48647 1082.1873
-181.7951 130.3924 1082.3369
-177.99039 130.8511 1082.728
-175.11107 130.75102 1082.7279
-171.24599 130.3502 1082.725
-169.33063 130.33145 1082.5697
-166.63725 130.84396 1082.6675
-163.53255 130.07983 1082.6982
-160.33475 130.55525 1082.0515
-157.91254 130.74615 1082.6871
-154.90704 130.35463 1082.762
-151.62083 130.30847 1082.2206
-147.90585 130.85353 1082.7463
-145.66075 130.38893 1082.2153
-142.65514 130.59106 1081.9567
-139.293 130.43428 1082.314
-136.41284 130.66882 1082.5214
-134.2493 130.37096 1082.342
-129.98666 130.55615 1082.3573
-126.97443 130.65231 1082.5735
-124.31106 130.64201 1082.614
-121.90395 130.33061 1082.5635
-117.33762 130.29594 1082.2755
-116.11457 130.63268 1082.2214
-111.72227 130.586 1082.4651
-109.11859 130.86821 1082.0403
-106.24031 130.57211 1082.3511
-103.20154 130.82353 1081.339
-100.51762 130.57454 1081.5415
-97.348228 130.51079 1081.4019
-94.342377 130.43283 1081.4172
-91.280075 130.58211 1081.6304
-88.493332 130.49002 1081.986
-86.609673 129.7166 1081.8971
-195.54181 133.05206 1081.8911
-193.70247 133.54015 1082.6051
-190.87788 133.44427 1081.8298
-187.01768 133.19582 1082.4108
-185.11253 133.50929 1082.3546
-180.56873 133.49078 1082.2046
-178.19785 133.68826 1082.5057
-175.50008 133.25063 1082.422
-172.54524 133.46031 1081.9602
-170.36119 134.37109 1082.8451
-166.61957 133.34886 1082.6775
-163.21184 134.38489 1082.9562
-160.36877 133.52684 1082.4962
-157.84604 132.76231 1082.7947
-153.82991 133.80345 1082.5751
-151.65817 133.41788 1082.3354
-147.88239 133.3409 1082.6141
-145.84233 133.60081 1082.1692
-141.97453 133.37103 1082.5316
-139.44496 133.46426 1082.3971
-136.0934 133.51842 1082.4291
-134.07819 133.53455 1082.5593
-130.28732 133.52713 1082.4985
-126.64039 133.32825 1082.5098
-124.21207 133.53685 1082.5778
-121.66132 133.52611 1082.4913
-117.68799 133.7964 1082.5173
-115.71194 133.5141 1082.3936
-111.98893 133.21568 1082.1379
-108.81558 133.5457 1082.1099
-106.27901 133.52179 1082.457
-102.85149 133.64378 1081.5905
-100.20832 133.6692 1081.5873
-97.390778 133.48163 1081.7689
-94.319977 133.42126 1081.2814
-91.219536 133.64058 1081.7985
-88.78669 133.48195 1082.1323
-193.44246 136.22627 1082.7292
-190.65625 136.5778 1082.4729
-187.33138 136.2924 1082.6484
-183.97153 136.43697 1082.704
-181.30486 136.69458 1082.207
-178.46216 135.41054 1082.6139
-174.88498 136.07762 1082.3058
-173.40517 136.39452 1082.2109
-169.32278 135.79021 1082.4462
-166.48633 136.50301 1082.8065
-163.35246 135.97536 1082.8583
-160.32365 136.42798 1082.3629
-158.01584 135.85997 1081.9402
-154.52045 136.72195 1082.7776
-151.56586 136.36118 1082.3867
-148.11597 136.66211 1082.4799
-145.6412 136.51404 1082.139
-142.33348 136.33318 1082.5173
-139.14542 136.49796 1082.2365
-136.27959 136.80382 1082.5449
-133.73975 136.21758 1082.306
-130.65416 136.54266 1082.2554
-126.98224 136.81842 1082.5543
-124.15131 136.48222 1082.3387
-121.66512 135.92072 1082.4221
-117.52014 136.38394 1082.2856
-115.99181 136.08638 1082.3761
-111.92963 136.78322 1082.1174
-108.70953 136.54436 1081.549
-106.42899 136.46442 1082.3682
-103.29568 136.60558 1081.504
-100.5679 136.47128 1081.6595
-97.286285 136.32306 1081.5723
-94.421066 136.32304 1081.7321
-91.487732 136.42451 1081.4294
-89.237381 135.49792 1082.245
-192.74779 138.35321 1082.6543
-190.71533 139.45876 1082.2516
-187.19341 139.56149 1082.7052
-184.04636 139.16409 1082.73
-181.65291 139.7002 1082.2281
-177.42867 139.5442 1082.5714
-174.82716 139.29558 1082.5056
-169.58 139.48579 1082.1193
-166.79765 139.97473 1082.8027
-162.7392 138.77498 1082.8197
-160.62814 139.73665 1082.2904
-154.55281 139.84218 1082.6619
-151.41074 139.40285 1082.6387
-148.06197 139.87204 1082.6298
-145.79594 139.32669 1082.0497
-142.43547 139.96948 1082.246
-139.27521 139.48666 1082.1262
-136.39676 139.22595 1082.587
-133.55818 139.1916 1082.7708
-130.21144 139.58466 1082.5405
-126.63847 139.22455 1082.4218
-124.15891 139.49059 1082.6724
-121.66803 139.65526 1082.3982
-117.59024 139.81783 1082.3613
-115.6739 139.72301 1082.0178
-111.8749 139.27934 1082.3817
-109.02335 139.38847 1081.8082
-106.36292 139.50101 1082.2351
-103.20718 139.13397 1081.2551
-100.64456 139.5486 1081.7418
-97.433105 139.399 1081.8325
-94.266861 139.51785 1081.4358
-91.992363 139.37439 1081.7694
-190.78729 141.78896 1082.3798
-186.94112 142.87088 1082.7385
-185.16599 143.12 1082.3507
-181.94322 142.71408 1082.3086
-178.394 141.49471 1082.1715
-174.77551 142.86978 1082.275
-173.42194 141.58719 1082.8788
-169.67334 142.3907 1081.8801
-166.28824 142.64453 1082.1194
-162.52028 142.90962 1082.7799
-160.3615 142.53371 1082.2405
-157.43146 142.75519 1082.6221
-154.68282 142.74928 1082.5747
-151.49184 143.02507 1082.6429
-148.54739 142.41115 1082.6155
-146.10046 142.36296 1082.1769
-142.32492 142.56627 1082.4891
-139.31795 142.66071 1082.2422
-135.92519 142.2397 1082.5094
-133.72002 142.43913 1082.5388
-130.25575 142.53087 1082.6556
-126.3963 142.47473 1082.5187
-124.63963 142.20883 1082.7307
-121.22972 142.75421 1082.6125
-117.49277 142.77301 1081.9958
-115.43337 142.57788 1081.8292
-112.1348 142.96764 1081.9531
-108.94399 142.75047 1081.5741
-106.27329 142.34868 1082.2382
-103.00363 142.46413 1081.4269
-100.65183 142.57002 1081.723
-97.387482 142.59398 1081.9502
-94.413361 142.33665 1081.4716
-92.503067 141.94196 1082.5291
-187.16476 145.52596 1082.7462
-185.27808 145.56094 1082.6344
-181.97916 145.29518 1082.3606
-177.90915 145.10428 1082.2181
-174.84918 145.79816 1082.4119
-171.26068 145.54491 1082.5151
-169.51701 145.37276 1082.0847
-166.40891 145.53806 1082.4645
-162.52051 145.87155 1081.9656
-160.62082 145.68269 1081.8387
-158.10556 145.55081 1082.5571
-154.70772 145.50571 1082.6493
-151.76949 145.53818 1082.4641
-148.0239 145.71143 1082.5625
-146.06975 145.69946 1082.4736
-142.97 145.87717 1082.6021
-139.85489 145.52116 1082.3375
-136.12494 145.73776 1082.4595
-133.70528 145.52625 1082.3759
-129.86148 145.54445 1082.5114
-126.85906 145.83409 1082.6797
-123.92271 145.70886 1082.5437
-121.69938 145.47324 1082.4788
-117.68666 145.66455 1082.2139
-115.64799 145.35214 1081.8251
-111.57359 145.55307 1081.5839
-109.04996 145.39522 1081.8282
-106.2825 145.52237 1082.3478
-103.19685 145.53893 1080.9797
-100.53755 145.55685 1081.6882
-97.504242 145.4595 1081.8799
-95.237045 145.23477 1081.6941
-186.54787 147.69978 1082.6517
-183.86307 148.70534 1082.1965
-182.00534 148.38152 1082.3376
-177.91161 148.42317 1082.3291
-175.06718 148.35294 1082.5465
-172.62688 147.6973 1082.6349
-169.57518 148.48022 1082.2228
-166.40895 148.75432 1082.5535
-162.64023 148.66685 1082.4034
-159.87515 148.70183 1081.8064
-157.57285 148.55675 1082.5038
-154.54697 148.68826 1082.3967
-151.56929 148.67856 1082.3665
-148.11639 148.55371 1082.5509
-145.83061 148.50677 1082.3695
-142.65045 148.55223 1082.5406
-139.39189 148.46965 1082.1011
-136.33473 148.70792 1082.6318
-133.56799 148.5536 1081.9667
-130.21722 148.95639 1082.2031
-127.14915 148.67223 1082.3196
-124.53528 148.25015 1081.9359
-121.49506 148.75172 1082.5322
-117.88083 148.40173 1082.1733
-115.68329 148.43315 1081.9641
-112.31451 148.27843 1082.0039
-108.9519 148.48758 1081.7769
-106.33046 148.58864 1082.3187
-103.02442 148.58931 1081.3514
-100.57777 148.42998 1081.6873
-97.870613 148.15796 1082.0988
-181.90952 151.56038 1082.5687
-177.39503 151.51781 1082.2623
-174.74451 151.58154 1082.3129
-172.34077 151.58353 1082.7345
-169.49106 151.70508 1082.5299
-166.57845 151.40227 1082.3922
-162.9812 151.59995 1082.2806
-160.79695 151.39265 1081.6891
-156.68024 152.62134 1081.5723
-154.36261 151.61661 1082.0171
-151.51662 151.50374 1082.1646
-148.44513 151.62048 1082.0458
-145.45633 151.50894 1081.6306
-142.15524 151.30717 1082.0304
-139.24237 151.44554 1081.7483
-136.37796 151.29875 1082.4175
-133.5145 151.20816 1081.9607
-130.36676 151.49103 1082.1613
-127.40073 151.74608 1082.1794
-124.24789 151.7269 1082.3275
-121.18734 151.50803 1082.1938
-117.51622 151.58319 1082.1599
-115.69003 151.44945 1082.0376
-112.07402 151.23709 1081.9773
-109.2535 151.79822 1081.816
-106.4628 151.35446 1082.3715
-103.42969 151.5361 1081.2522
-101.00357 151.25299 1081.6445
-177.91255 154.40918 1082.1831
-175.09436 154.82521 1082.5245
-169.38551 154.61237 1082.2679
-166.45657 154.37083 1082.6155
-162.84639 154.67284 1081.926
-160.38162 154.38893 1081.689
-157.66321 154.76424 1082.5676
-154.58107 154.68954 1082.136
-151.62569 154.44315 1082.2795
-148.41446 154.40453 1081.916
-145.6153 154.60464 1081.9601
-142.50377 154.60774 1082.0934
-139.3046 154.47406 1082.0917
-136.12186 154.88448 1082.2061
-133.54506 154.49133 1082.0146
-130.42438 154.46733 1082.2407
-127.64185 154.16498 1082.2952
-124.90967 154.58282 1082.113
-120.79749 154.48177 1082.4568
-117.64372 154.52335 1082.0002
-115.54089 154.54926 1082.1824
-112.05692 154.85693 1082.0126
-108.8334 154.7359 1081.901
-106.31466 154.44946 1082.2306
-103.51505 153.70441 1081.6847
-177.25223 156.61526 1081.5179
-175.03835 157.21463 1082.1025
-172.66219 157.06129 1082.7538
-169.44342 157.63396 1082.3292
-166.49263 157.40594 1082.6759
-162.68376 157.34204 1082.1127
-160.53096 157.6292 1081.8076
-157.50621 157.37204 1082.5951
-154.69121 157.65089 1082.4465
-151.50587 157.52483 1082.2692
-148.40601 157.55331 1081.7767
-145.58511 157.37691 1081.5975
-142.46745 157.51726 1082.2163
-139.13887 157.73154 1081.6912
-136.24477 157.27264 1082.3705
-133.74098 157.47116 1081.8993
-130.66174 157.59204 1082.1208
-127.60366 157.35497 1082.2037
-124.62476 157.39859 1082.0897
-121.49103 157.38425 1082.483
-117.26479 157.45615 1081.797
-115.65063 157.5016 1082.1084
-112.02411 157.33321 1082.0521
-109.16928 157.24959 1081.7535
-107.24503 157.07965 1082.8802
-174.31496 159.15044 1082.4308
-172.43271 159.61673 1082.877
-169.42601 160.48842 1082.2715
-166.42471 160.34396 1082.3777
-162.71815 160.67683 1081.9222
-160.47179 160.47264 1081.8951
-157.38269 160.60962 1082.5486
-154.61435 160.448 1082.0886
-151.50764 160.65704 1082.3879
-148.53415 160.48151 1081.9543
-145.89207 160.57007 1081.9729
-142.40916 160.25484 1082.1135
-139.20044 160.57581 1081.5411
-136.412 160.9518 1082.4246
-133.77039 160.71678 1082.1903
-130.28023 160.57159 1082.3116
-127.20116 160.54799 1082.5526
-124.6442 160.31209 1082.1609
-121.51641 160.297 1082.4474
-117.93653 160.63539 1082.0913
-115.70136 160.52182 1082.3755
-111.58298 160.02563 1081.5789
-110.80349 160.01508 1082.8616
-166.26936 163.09482 1082.9153
-162.39098 163.48497 1081.9613
-160.1619 163.46538 1081.8302
-157.70161 163.50246 1082.5192
-154.58026 163.28668 1082.0236
-151.86234 163.63416 1082.1547
-148.56955 163.60872 1082.1907
-145.56116 163.62613 1082.0131
-142.32623 163.64212 1082.207
-139.37392 163.42535 1081.8064
-136.46243 163.80238 1082.5471
-133.51369 163.80591 1082.0238
-130.40063 163.5634 1082.1
-127.56164 163.36624 1082.5006
-124.70249 163.76477 1082.0459
-121.27959 163.42566 1082.3269
-117.66792 162.9312 1082.0057
-116.32184 162.59311 1082.2423
-159.85474 165.50778 1082.1001
-157.49208 165.98096 1082.5754
-154.46208 166.42438 1082.2742
-151.62642 166.51901 1082.1669
-148.57758 166.43561 1082.0577
-145.69299 166.27534 1081.8842
-142.51157 166.47366 1082.3052
-139.4467 166.4299 1082.0219
-136.1707 166.74413 1082.329
-133.71849 166.47116 1082.1942
-129.99123 166.43529 1082.2738
-127.01163 166.07692 1082.3309
-124.83823 165.78206 1082.1476
-147.73416 168.78368 1082.5677
-145.6481 168.46907 1082.2631
-142.62193 168.66049 1082.6343
-139.45686 168.61275 1082.3278
-136.1398 168.76421 1082.4429
-134.05037 168.73006 1082.2238
-158.77097 53.466076 1083.3743
-154.51677 52.978844 1083.2468
-148.58388 52.916637 1083.0679
-146.03516 51.05069 1083.1554
-141.8856 51.063469 1083.4265
-139.35944 51.055683 1083.2614
-135.01642 51.130802 1084.8551
-133.1839 51.636902 1084.2501
-130.09669 51.91177 1084.3994
-127.7464 52.699982 1084.1066
-124.25401 53.496792 1083.9966
-165.34396 56.69175 1083.7358
-162.21321 55.898167 1083.8969
-158.71429 54.254025 1083.1
-154.38928 55.538704 1083.4059
-148.06618 55.052597 1083.0426
-144.52257 55.860928 1083.1761
-127.17881 55.463383 1083.238
-120.15814 55.881435 1083.5781
-118.94916 55.914482 1084.2173
-115.98264 56.782681 1085.4741
-168.75974 59.305862 1083.8859
-165.30588 57.867981 1083.2351
-162.43811 58.594658 1083.7059
-155.15686 58.521301 1083.4611
-147.71457 59.474892 1083.3035
-142.40488 59.072971 1083.2838
-133.08287 59.862495 1083.0648
-120.05767 59.06134 1083.0706
-119.27057 58.417191 1083.5077
-114.5308 57.564339 1085.0671
-112.84074 58.581181 1084.0699
-110.80847 59.931404 1084.3116
-176.40384 62.317059 1083.9377
-168.82117 61.655556 1083.5872
-165.13878 62.274403 1083.1958
-162.98611 61.653297 1083.5507
-154.46851 61.686352 1083.4268
-147.98619 60.940063 1083.2241
-120.1177 61.477688 1083.2832
-119.22711 61.483101 1083.3779
-109.57094 61.711796 1083.8767
-107.13712 61.989571 1085.2257
-178.58723 64.689392 1083.3685
-175.87982 64.612656 1083.764
-173.2092 64.307022 1083.6783
-168.98363 64.207581 1083.6946
-165.27325 63.078663 1083.2422
-162.62125 64.191185 1083.4136
-154.64857 64.904518 1083.2424
-148.11603 64.276344 1083.1648
-120.11018 64.278214 1083.1938
-119.2405 64.422256 1083.3671
-110.06066 64.297134 1083.5126
-105.36725 63.548798 1084.4327
-103.76575 64.75708 1084.5015
-182.39398 68.392105 1084.8787
-178.9146 67.898354 1083.4041
-176.36845 67.652901 1083.7556
-168.80019 67.514229 1083.6772
-165.33533 68.67688 1083.0383
-163.21175 67.59993 1083.4429
-161.99834 68.678818 1083.0688
-158.1452 66.548691 1083.1842
-154.70363 67.600891 1083.4562
-147.94994 67.343712 1083.0793
-146.87308 67.898865 1083.4121
-133.21352 67.076271 1083.075
-127.19925 68.692268 1083.281
-123.98045 67.88504 1083.1913
-120.12551 67.364967 1083.4225
-119.22704 67.491302 1083.3048
-114.56243 67.49337 1083.3397
-110.59956 66.899902 1083.4653
-102.12516 67.499794 1083.4482
-101.01208 67.459877 1084.0952
-184.71585 70.821884 1083.6672
-182.11357 70.467201 1083.8702
-178.8501 70.450974 1083.2073
-175.9099 70.224525 1083.4211
-168.76021 70.222534 1083.3933
-166.26884 71.086334 1083.1165
-163.22777 70.544922 1083.417
-158.7401 70.682831 1083.074
-154.60921 70.636482 1083.5355
-148.43481 71.017296 1083.2845
-146.78946 71.899239 1083.2883
-142.50468 71.913582 1083.5044
-133.11768 71.910629 1083.46
-127.1673 70.289024 1083.181
-124.2696 70.33326 1083.8627
-120.49759 70.689575 1083.1788
-114.72109 71.120705 1083.6401
-109.89629 70.587067 1083.6537
-102.083 70.283493 1083.0958
-97.476784 70.833084 1084.1469
-186.13939 74.304153 1083.2888
-185.12932 73.51059 1083.411
-182.08147 72.740135 1083.8734
-176.59729 73.57856 1084.4056
-173.12433 73.494072 1083.163
-168.48576 73.541389 1083.8612
-165.40193 73.543869 1083.8982
-162.29591 73.553932 1084.0465
-158.78481 72.685776 1083.0635
-154.36011 73.750717 1083.5704
-148.57236 73.606819 1083.3484
-140.42551 73.493034 1083.1489
-127.18667 74.30172 1083.2534
-123.99394 72.698082 1083.2468
-119.44022 73.906876 1083.3416
-110.6709 73.528755 1083.6771
-102.13036 72.685936 1083.0658
-101.18389 72.682838 1083.0197
-95.249634 73.547432 1083.9459
-188.17964 76.897369 1083.1189
-184.83911 76.581116 1083.7477
-182.11861 76.357704 1083.9991
-178.88942 76.580849 1083.3666
-176.54144 76.501259 1084.132
-172.81087 76.579399 1083.3429
-168.74155 76.646866 1083.8274
-165.27005 77.106583 1083.2429
-163.28282 76.606041 1083.7206
-160.19313 76.711456 1083.323
-157.72815 77.140923 1083.7268
-154.83975 76.625877 1083.7653
-152.28049 76.691727 1083.0444
-148.59662 76.568741 1083.4287
-144.53357 76.691864 1083.0464
-142.2326 76.312584 1083.3479
-133.38922 77.248466 1083.3602
-127.33891 76.608566 1083.7542
-124.58308 76.569405 1083.5824
-120.14227 76.320076 1083.4531
-118.99516 76.402969 1083.2103
-114.71394 75.914558 1083.3909
-111.79636 77.506157 1083.226
-110.63482 76.105507 1083.2585
-106.22658 76.698166 1083.1362
-93.760612 75.18557 1084.4397
-92.588173 76.720139 1083.4457
-189.86282 79.204384 1083.7434
-184.42986 79.717041 1083.3149
-181.96759 79.5336 1083.5452
-178.88136 78.982613 1083.321
-176.41631 79.958046 1083.8649
-173.32869 79.963928 1083.9427
-168.60059 79.775436 1084.1055
-165.45595 79.551109 1083.7805
-163.29085 79.548866 1083.7521
-159.83188 79.982307 1084.1918
-157.41235 79.551712 1083.7885
-154.53136 79.686401 1083.8076
-148.87044 79.730217 1083.494
-145.69659 80.315903 1083.2822
-139.31213 78.297043 1083.078
-132.94232 79.290764 1083.5115
-126.62473 80.113907 1083.2612
-124.12778 79.138435 1083.6232
-120.42705 79.628403 1083.7471
-119.06465 79.798553 1083.8789
-112.69228 79.105087 1083.1682
-110.27423 80.447105 1083.25
-105.22755 80.320885 1083.3499
-90.898911 79.557121 1083.8701
-190.56511 82.691528 1083.7706
-187.99817 82.30735 1083.1168
-184.53447 82.806847 1083.5338
-182.10701 82.897606 1083.849
-179.22687 82.857948 1083.33
-176.74443 82.434181 1084.785
-172.84573 82.95372 1083.7096
-169.19994 82.465561 1083.6886
-165.6881 82.557266 1083.7646
-163.30519 82.577431 1083.6571
-159.49475 82.35688 1083.7711
-158.03165 83.74794 1083.6088
-154.71765 82.77874 1083.6049
-148.93582 82.836517 1083.486
-146.88611 83.546265 1083.5933
-141.94896 83.919006 1083.2285
-139.49663 83.929604 1083.3654
-134.02634 82.731415 1083.4243
-127.86918 82.727333 1083.3695
-123.98204 83.516273 1083.2039
-120.47549 82.559448 1083.7988
-118.80492 82.661118 1083.5518
-114.96758 82.340233 1083.5514
-113.19032 83.709732 1083.1135
-110.62354 81.921295 1083.3114
-106.31419 83.314735 1083.188
-90.258682 81.904282 1083.0864
-89.774689 81.67868 1085.4135
-195.01341 86.402359 1084.215
-190.25964 85.172035 1083.8751
-188.96614 85.927437 1083.2847
-184.33374 85.686295 1083.277
-182.18523 85.588371 1084.0697
-179.24043 86.074196 1083.4508
-175.79007 85.399254 1083.7008
-172.1394 85.711853 1083.5992
-169.41022 85.327637 1084.1521
-165.39384 85.560341 1083.7157
-163.40384 85.585892 1084.0349
-159.20605 84.813644 1084.4185
-157.64107 85.270714 1083.4287
-155.02292 85.568611 1083.8173
-148.22194 85.536903 1083.4161
-142.0769 85.342468 1083.4922
-140.53546 85.517838 1083.1737
-133.36353 85.931961 1083.3408
-127.29372 85.552284 1083.61
-124.51025 85.00943 1083.5039
-120.34428 85.45121 1084.024
-119.5052 85.603386 1084.2538
-114.72207 85.958328 1083.6732
-113.26241 85.551628 1083.6022
-110.7804 86.355919 1083.6322
-106.30052 85.710739 1083.0791
-97.556946 84.737228 1083.4414
-88.110191 85.574211 1083.8804
-196.91498 89.529144 1083.2173
-194.36824 88.998329 1083.2599
-190.30446 88.35614 1083.58
-186.12924 87.931587 1083.2861
-184.53262 88.581345 1083.3904
-182.51996 88.612366 1083.4418
-179.02335 88.221115 1083.1504
-176.46002 88.650063 1083.902
-172.50412 88.36702 1083.7085
-169.31064 88.675064 1083.976
-165.58702 88.631836 1083.2744
-163.34509 88.551758 1083.7911
-159.0303 87.986534 1083.963
-158.16182 88.158363 1083.6091
-154.75497 88.773422 1083.7769
-148.69868 88.58345 1083.291
-141.96786 89.12841 1083.2178
-139.50368 88.718292 1083.104
-133.1039 88.14518 1083.448
-131.96255 88.713402 1083.0442
-127.64621 89.1278 1083.2107
-120.61704 88.386711 1083.952
-119.06468 88.460548 1083.8774
-114.95789 88.839539 1083.6052
-112.82927 88.618088 1083.8357
-110.34893 88.364075 1083.678
-106.32491 87.724754 1083.2075
-99.467407 88.762146 1083.6394
-91.281227 89.516106 1083.0594
-88.268829 88.512344 1083.5261
-86.210739 88.711983 1083.027
-196.85548 91.93882 1083.276
-194.82837 91.960556 1083.5317
-190.3399 91.805801 1084.0741
-185.0775 91.394379 1083.9485
-182.13641 91.570602 1083.6589
-178.5701 92.001099 1083.3328
-175.85043 91.856651 1083.6584
-172.57819 91.685814 1083.443
-169.39293 91.619019 1083.6418
-165.3759 91.690216 1083.491
-163.29391 91.47728 1083.9806
-159.98631 91.567169 1083.6254
-157.89651 91.438538 1083.2832
-154.33928 91.513077 1083.5073
-150.54787 90.337936 1083.3038
-148.7411 91.10067 1083.5227
-144.66925 92.76265 1083.535
-142.02267 91.607704 1083.3105
-140.58781 90.353279 1083.4878
-133.78133 90.625893 1083.5524
-127.29849 92.166794 1083.6003
-124.47803 91.682167 1083.4009
-120.22644 91.684181 1083.4253
-118.5566 91.703377 1083.4546
-114.76951 90.973999 1083.7205
-113.09725 91.793198 1083.9204
-109.19577 91.632881 1083.2125
-106.38979 91.458824 1083.5264
-103.18382 92.132141 1083.1917
-95.525169 91.128632 1083.1737
-89.329544 91.962585 1083.5557
-85.34285 91.607956 1084.1079
-197.05304 94.982788 1083.2511
-194.88553 95.20887 1083.9995
-190.1003 94.561066 1083.6614
-184.58304 94.041855 1083.4934
-181.90866 94.356972 1083.428
-178.26276 94.419502 1083.3788
-176.0681 94.54763 1084.0831
-172.46777 94.433228 1083.7273
-169.47885 94.672928 1083.9867
-165.39467 94.491638 1083.4403
-163.38326 94.388763 1083.7937
-159.13176 94.818878 1084.1301
-157.60124 94.841919 1083.472
-154.62633 94.332451 1083.5852
-151.18115 94.611298 1083.2788
-148.46658 94.646057 1083.4596
-145.28737 94.067749 1083.1748
-142.64862 95.942459 1083.2255
-138.97165 95.14296 1083.2496
-133.98335 94.659203 1083.8265
-127.2468 94.759087 1083.4429
-124.18465 94.388756 1083.7909
-120.69846 94.221504 1083.7129
-118.52017 94.472816 1083.2241
-115.76258 95.559044 1083.4227
-112.85756 94.504044 1083.5828
-109.61761 94.781372 1083.7002
-106.9712 94.734047 1083.1564
-103.68451 94.351898 1083.3707
-84.536537 94.857224 1084.5675
-198.61273 98.376266 1083.5457
-196.57887 96.779213 1083.6229
-194.43358 97.547585 1083.2482
-190.22343 97.361694 1083.7278
-186.30167 98.354668 1083.3077
-184.64868 97.194756 1083.7838
-181.91934 97.538139 1083.1418
-178.86491 97.848938 1083.6259
-176.18655 97.71711 1084.2412
-172.38509 97.412674 1083.9758
-169.40274 97.420235 1083.6151
-166.28838 97.734657 1083.5442
-163.41469 97.40284 1083.8663
-159.09554 97.623505 1084.0908
-157.65282 97.315369 1083.6392
-154.43396 97.627144 1083.5748
-148.54211 97.273705 1083.173
-144.58176 97.934853 1083.0975
-142.54364 97.558495 1083.368
-140.4808 98.337311 1083.1166
-132.14934 98.392387 1083.7231
-127.4058 97.561348 1083.3995
-124.29971 97.499695 1084.2006
-120.22882 97.968979 1083.4736
-118.5987 97.892067 1084.1011
-115.72283 97.337753 1083.463
-112.6615 97.675491 1083.5549
-109.67902 97.62323 1084.089
-106.55241 97.394882 1083.3323
-103.14195 96.735184 1083.1262
-87.709328 97.935593 1083.1062
-83.651474 98.452034 1084.3801
-198.98773 101.30593 1083.4365
-196.99365 100.7014 1083.5444
-194.27216 99.971626 1083.4583
-190.32469 100.42128 1083.9829
-187.63831 101.17668 1083.4828
-184.77753 100.6522 1083.588
-182.17657 100.81475 1083.9008
-179.00841 100.68339 1083.7198
-176.03183 100.53347 1084.329
-172.3243 100.43761 1083.7268
-169.62573 100.28996 1084.009
-166.17628 100.26766 1083.7672
-163.43173 100.22073 1083.9834
-160.35205 99.739868 1083.1157
-157.91512 100.9373 1083.3708
-154.31972 100.69803 1083.4435
-148.74557 100.60841 1083.406
-146.90298 100.17012 1083.4368
-141.95134 100.43462 1083.2611
-132.52449 99.97448 1083.4894
-127.60995 100.10098 1083.4064
-123.5779 100.86556 1083.5828
-121.43654 100.41187 1083.2626
-118.32734 100.42937 1083.5903
-115.78809 100.04144 1083.4886
-112.81277 100.51646 1083.5653
-109.74228 100.24428 1083.1533
-106.2767 101.14619 1083.1555
-104.34334 100.15855 1083.3093
-87.284889 100.80169 1083.7603
-83.551811 100.40036 1083.7634
-198.77522 104.28664 1083.8624
-197.31842 103.72437 1083.5732
-193.38757 103.78851 1083.5459
-190.20651 103.65582 1083.4557
-186.23779 103.1694 1083.3616
-184.58977 103.89668 1083.4192
-182.13974 103.62005 1083.8801
-178.75754 103.37236 1083.9105
-176.32544 103.92825 1084.3092
-172.42516 103.3446 1083.7943
-169.62868 103.44025 1083.8644
-166.26877 103.50146 1083.4774
-163.39462 103.51365 1083.6975
-159.17171 103.65779 1084.275
-156.9924 103.46649 1083.9545
-154.11401 103.68526 1083.3641
-148.6291 103.57692 1083.4274
-144.64215 103.55873 1083.2397
-142.60811 103.71824 1083.5068
-140.52188 103.96793 1083.3262
-136.74052 103.16763 1083.3405
-132.2166 104.21536 1083.814
-130.15132 104.36871 1084.157
-127.14568 103.49689 1083.6399
-123.88046 103.38399 1083.5071
-121.21688 103.37719 1083.4353
-118.78014 103.77271 1083.6782
-114.78003 104.20497 1083.7057
-112.74099 103.26045 1083.7133
-109.43567 103.78306 1083.906
-105.25692 103.5895 1083.5616
-104.39048 104.18568 1083.5063
-199.09067 106.00281 1083.6421
-197.77444 106.96788 1083.2637
-193.54753 106.1705 1083.3052
-190.18608 106.34752 1083.9747
-187.12683 107.96397 1083.2035
-184.37434 106.71649 1083.4237
-182.07294 106.66022 1083.5332
-178.95361 106.39603 1084.0728
-175.44781 106.42623 1083.8682
-172.39861 106.4072 1083.6754
-169.57887 106.41629 1083.7684
-165.59949 106.45477 1084.1581
-163.51895 106.51357 1083.7379
-158.0746 106.48765 1083.3293
-154.54073 106.46399 1083.574
-150.63586 106.76613 1083.2495
-148.62381 106.41222 1083.2167
-146.08586 105.82691 1083.208
-142.74373 106.55334 1083.8053
-138.3531 107.96162 1083.1799
-135.75378 107.60696 1083.646
-133.44347 106.96236 1083.4965
-130.56837 105.54602 1083.0674
-127.51266 106.30111 1083.1779
-124.26431 106.42205 1083.8243
-120.37453 106.82736 1083.8724
-118.97291 106.41275 1083.733
-114.68645 107.16337 1083.2131
-113.39019 106.40586 1083.6605
-109.94977 106.6122 1084.1307
-106.16424 106.51489 1083.4117
-104.38263 106.51406 1083.4042
-87.13446 107.96511 1083.215
-82.693199 106.46479 1084.2621
-199.41992 109.86613 1083.5221
-197.35364 109.32883 1083.2261
-193.46295 110.03352 1083.8491
-190.47081 109.59436 1083.8499
-187.61246 109.56158 1083.1487
-184.72871 109.59357 1083.4652
-181.53534 109.592 1083.4513
-178.87561 109.40363 1084.0664
-175.93634 109.47248 1083.5916
-172.40855 109.40088 1083.9404
-169.5468 109.61485 1084.2426
-166.32133 109.11475 1084.0177
-163.54242 108.92556 1083.9114
-159.70013 109.60309 1083.5573
-156.89397 109.62787 1083.8044
-154.28029 109.44809 1083.5128
-150.70956 108.79008 1083.448
-148.45869 109.60569 1083.5834
-145.35847 109.58301 1083.3602
-142.67563 108.81068 1083.6532
-138.52269 108.80783 1083.6248
-133.30777 109.42953 1083.4287
-127.52142 109.39583 1083.4921
-124.13739 110.00125 1083.5334
-120.65443 109.66559 1084.1772
-118.69883 109.43243 1083.8545
-115.17999 109.2323 1083.8579
-112.71541 109.44273 1083.8636
-109.51743 109.579 1084.114
-105.19678 109.57026 1083.2345
-103.913 109.59973 1083.527
-97.651871 108.75791 1083.1276
-82.590866 108.82597 1083.8054
-199.10318 112.31737 1083.6398
-197.28238 112.66457 1083.6982
-193.86041 112.36841 1083.4857
-190.37997 112.61196 1083.8558
-186.25853 112.57764 1083.2487
-184.46889 112.15665 1083.3315
-181.8419 112.31316 1083.5964
-178.93932 112.61998 1083.8719
-176.04329 112.51266 1083.911
-172.416 112.51817 1083.7501
-169.67435 112.45518 1084.0039
-166.54323 112.32482 1083.7117
-163.35661 112.51015 1083.5632
-159.77599 112.17053 1083.8325
-156.97008 112.9161 1084.5741
-154.83698 112.57348 1083.423
-151.67662 113.06367 1084.0653
-148.62444 112.394 1083.4098
-145.67468 112.37408 1083.219
-142.33681 112.29144 1083.3871
-139.95703 112.02285 1083.6959
-135.04634 113.68591 1084.2621
-132.97015 112.59408 1083.4069
-127.74437 112.57981 1083.6553
-124.63631 112.17459 1083.2273
-120.83195 112.47524 1084.1902
-119.03491 112.44985 1083.9465
-114.90347 112.06715 1084.1278
-112.87102 112.57336 1083.85
-109.45471 112.28316 1083.889
-105.8088 112.68427 1083.3103
-104.14131 112.89024 1083.3636
-87.156281 111.18032 1083.3019
-82.783287 113.71083 1084.4998
-198.8268 116.22522 1083.6249
-197.61354 114.75652 1084.2694
-193.786 115.64227 1083.2618
-190.23831 115.61935 1083.5853
-186.27681 115.46293 1083.3701
-184.35532 115.63832 1083.7589
-182.05414 114.80289 1083.4448
-178.57729 115.51815 1083.8882
-175.95747 115.54731 1084.1611
-172.39575 115.57159 1083.8192
-169.52527 115.57578 1084.0109
-166.43182 115.77695 1083.6506
-163.57053 115.52559 1083.8302
-160.77231 116.31586 1083.8456
-157.6953 115.61198 1083.5135
-154.17816 115.05168 1083.9034
-151.644 115.36575 1083.7133
-148.74994 115.43539 1083.3605
-145.01239 114.65511 1083.3121
-142.43088 115.31168 1083.3839
-140.04791 116.78599 1083.2483
-137.48038 115.4334 1083.0931
-133.84337 115.75985 1083.6477
-127.72756 115.44138 1083.7965
-124.21701 115.50669 1083.783
-120.73421 115.91872 1083.8842
-119.22628 115.58653 1084.3494
-114.87293 115.63312 1083.7104
-112.87125 115.61858 1083.5745
-109.65515 115.34197 1083.8035
-106.57318 115.58044 1083.2185
-104.42489 115.61249 1083.5184
-82.789398 114.89661 1084.3281
-199.17271 119.2594 1083.8718
-196.55144 118.68551 1083.5148
-194.15381 118.40414 1083.3849
-190.04813 118.82835 1083.6008
-187.6841 117.60651 1083.4225
-184.69307 118.67416 1084.0227
-180.91191 118.64585 1084.1299
-178.08241 118.39689 1083.3193
-175.59866 118.58991 1083.7113
-172.19261 118.09297 1083.4717
-169.7991 118.47343 1084.0153
-166.69861 118.9047 1083.9302
-163.73344 118.35123 1083.9491
-160.85808 118.44781 1083.7833
-157.94038 118.68088 1083.4735
-154.18094 118.41748 1083.5081
-151.57489 119.38115 1083.1572
-148.91359 118.79391 1083.2843
-145.38332 118.65256 1083.2137
-142.51717 118.25233 1083.8318
-137.48193 118.36647 1083.0402
-134.47804 118.76888 1083.0559
